2.559287548065185547e+00,1.073724150657653809e+00,2.428158819675445557e-01
2.528511762619018555e+00,1.060293555259704590e+00,-4.342620968818664551e-01
2.531979560852050781e+00,1.061228156089782715e+00,3.370906114578247070e-01
2.532164573669433594e+00,1.060786247253417969e+00,-3.370906114578247070e-01
2.538176536560058594e+00,1.062784194946289062e+00,4.358264505863189697e-01
2.537983179092407227e+00,1.062703132629394531e+00,-2.407241463661193848e-01
2.539030313491821289e+00,1.062100172042846680e+00,-1.442379057407379150e-01
2.538808822631835938e+00,1.060965061187744141e+00,-4.802902415394783020e-02
3.304934263229370117e+00,1.380452275276184082e+00,9.597010612487792969e-01
2.989155054092407227e+00,1.244264841079711914e+00,-8.675615191459655762e-01
2.522009611129760742e+00,1.049294590950012207e+00,4.767997562885284424e-02
3.228047847747802734e+00,1.342386245727539062e+00,-8.071244359016418457e-01
2.548811197280883789e+00,1.059401988983154297e+00,1.446565985679626465e-01
2.555660724639892578e+00,1.061725974082946777e+00,2.421186417341232300e-01
2.521250963211059570e+00,1.046916246414184570e+00,-4.323849081993103027e-01
2.537502527236938477e+00,1.053143858909606934e+00,3.373343646526336670e-01
2.537686109542846680e+00,1.052700996398925781e+00,-3.373343646526336670e-01
2.545520782470703125e+00,1.055431604385375977e+00,4.364522099494934082e-01
2.543517589569091797e+00,1.054601073265075684e+00,-2.408984750509262085e-01
2.527961015701293945e+00,1.047115683555603027e+00,-1.434005349874496460e-01
3.388599395751953125e+00,1.402912855148315430e+00,8.467158079147338867e-01
2.531410455703735352e+00,1.047509551048278809e+00,-4.781959578394889832e-02
3.356148004531860352e+00,1.388103723526000977e+00,9.731596708297729492e-01
2.995265960693359375e+00,1.234559774398803711e+00,-8.680790662765502930e-01
2.523807525634765625e+00,1.039723515510559082e+00,4.764506965875625610e-02
3.225506782531738281e+00,1.328141331672668457e+00,-8.053248524665832520e-01
2.537717819213867188e+00,1.044418096542358398e+00,1.438192278146743774e-01
2.559350967407226562e+00,1.052799105644226074e+00,2.421186417341232300e-01
2.528544425964355469e+00,1.039610624313354492e+00,-4.330106377601623535e-01
2.530146121978759766e+00,1.039753079414367676e+00,3.358719348907470703e-01
2.521146535873413086e+00,1.035540461540222168e+00,-3.346532285213470459e-01
2.554671764373779297e+00,1.048789620399475098e+00,4.373908340930938721e-01
2.554555892944335938e+00,1.048742055892944336e+00,-2.415957152843475342e-01
3.360140085220336914e+00,1.378779768943786621e+00,7.059933543205261230e-01
2.527904510498046875e+00,1.036769747734069824e+00,-1.431911885738372803e-01
2.542452812194824219e+00,1.041699886322021484e+00,-4.795921221375465393e-02
3.339519500732421875e+00,1.367595314979553223e+00,9.669479727745056152e-01
3.006711244583129883e+00,1.227017164230346680e+00,-8.701496720314025879e-01
2.531125307083129883e+00,1.032417297363281250e+00,4.771488159894943237e-02
3.222905635833740234e+00,1.313930630683898926e+00,-8.035252690315246582e-01
2.530250310897827148e+00,1.031031847000122070e+00,1.431911885738372803e-01
2.563010692596435547e+00,1.043858170509338379e+00,2.421186417341232300e-01
2.526669502258300781e+00,1.028543114662170410e+00,-4.320720434188842773e-01
2.535598754882812500e+00,1.031663656234741211e+00,3.361156880855560303e-01
2.522907257080078125e+00,1.025985240936279297e+00,-3.344095051288604736e-01
2.541847467422485352e+00,1.033170700073242188e+00,4.345749914646148682e-01
2.550818443298339844e+00,1.036817073822021484e+00,-2.408984750509262085e-01
3.273988008499145508e+00,1.330095767974853516e+00,6.869124174118041992e-01
2.524106264114379883e+00,1.024933099746704102e+00,-1.427725106477737427e-01
2.529395818710327148e+00,1.026054024696350098e+00,-4.764506965875625610e-02
3.319209337234497070e+00,1.345766901969909668e+00,9.597010612487792969e-01
2.996647119522094727e+00,1.210724115371704102e+00,-8.660085797309875488e-01
2.538421392440795898e+00,1.025075078010559082e+00,4.778468981385231018e-02
3.234700202941894531e+00,1.305590748786926270e+00,-8.053248524665832520e-01
2.544768095016479492e+00,1.027120113372802734e+00,1.438192278146743774e-01
2.562942504882812500e+00,1.033416867256164551e+00,2.417700290679931641e-01
2.539404869079589844e+00,1.023409485816955566e+00,-4.336363673210144043e-01
2.542867422103881836e+00,1.024289131164550781e+00,3.366031348705291748e-01
2.531819581985473633e+00,1.019839048385620117e+00,-3.351407349109649658e-01
2.543331861495971680e+00,1.023444652557373047e+00,-2.398525923490524292e-01
3.369683742523193359e+00,1.355287909507751465e+00,7.059933543205261230e-01
2.536934375762939453e+00,1.019840121269226074e+00,-1.432958692312240601e-01
2.525362730026245117e+00,1.014677762985229492e+00,-4.750544950366020203e-02
3.341580629348754883e+00,1.341952681541442871e+00,9.648774266242980957e-01
3.002439260482788086e+00,1.201497077941894531e+00,-8.665261864662170410e-01
2.532523393630981445e+00,1.012937784194946289e+00,4.761016741394996643e-02
3.239011764526367188e+00,1.294857501983642578e+00,-8.053248524665832520e-01
2.544450998306274414e+00,1.017193436622619629e+00,1.436098814010620117e-01
2.551553249359130859e+00,1.018999934196472168e+00,2.403755336999893188e-01
2.511595964431762695e+00,1.002534270286560059e+00,-4.283176064491271973e-01
2.525969028472900391e+00,1.007758855819702148e+00,-3.339220583438873291e-01
2.544973373413085938e+00,1.014827489852905273e+00,4.339492619037628174e-01
2.539308309555053711e+00,1.012054920196533203e+00,-2.391553521156311035e-01
3.399694204330444336e+00,1.354276895523071289e+00,7.113359570503234863e-01
2.542157649993896484e+00,1.012162327766418457e+00,-1.434005349874496460e-01
3.405572891235351562e+00,1.355931997299194336e+00,8.462659120559692383e-01
2.532429456710815430e+00,1.007777094841003418e+00,-4.757525771856307983e-02
3.335242033004760742e+00,1.326579332351684570e+00,9.617716073989868164e-01
3.006406545639038086e+00,1.191534519195556641e+00,-8.665261864662170410e-01
2.522854328155517578e+00,9.993793964385986328e-01,4.736583307385444641e-02
3.225169181823730469e+00,1.276934862136840820e+00,-8.008258342742919922e-01
2.551700592041015625e+00,1.009774565696716309e+00,1.438192278146743774e-01
2.558623552322387695e+00,1.011999130249023438e+00,2.407241463661193848e-01
2.514907121658325195e+00,9.941992759704589844e-01,-4.283176064491271973e-01
2.547758817672729492e+00,1.006672263145446777e+00,3.363594412803649902e-01
2.520238876342773438e+00,9.952914118766784668e-01,-3.327033221721649170e-01
2.533801317214965820e+00,1.000134944915771484e+00,4.314463138580322266e-01
2.546532869338989258e+00,1.004646658897399902e+00,-2.395039796829223633e-01
3.287284851074218750e+00,1.296884775161743164e+00,6.869124174118041992e-01
2.526919364929199219e+00,9.964005947113037109e-01,-1.423538029193878174e-01
2.537792444229125977e+00,9.996632933616638184e-01,-4.761016741394996643e-02
3.332661390304565430e+00,1.312100529670715332e+00,9.597010612487792969e-01
3.021544933319091797e+00,1.184739470481872559e+00,-8.696320056915283203e-01
2.530051231384277344e+00,9.920261502265930176e-01,4.743564128875732422e-02
3.218720912933349609e+00,1.261401891708374023e+00,-7.981263995170593262e-01
2.547770977020263672e+00,9.979482293128967285e-01,1.434005349874496460e-01
2.566026926040649414e+00,1.004064679145812988e+00,2.410727739334106445e-01
2.520373582839965820e+00,9.856950640678405762e-01,-4.286305010318756104e-01
2.532769441604614258e+00,9.905429482460021973e-01,3.339220583438873291e-01
2.521848917007446289e+00,9.857646822929382324e-01,-3.324595987796783447e-01
2.540957212448120117e+00,9.927212595939636230e-01,4.320720434188842773e-01
2.546311855316162109e+00,9.943025112152099609e-01,-2.391553521156311035e-01
3.292015790939331055e+00,1.284828305244445801e+00,6.869124174118041992e-01
2.526833772659301758e+00,9.856788516044616699e-01,-1.421444714069366455e-01
3.415188550949096680e+00,1.331527590751647949e+00,8.462659120559692383e-01
2.544992685317993164e+00,9.922520518302917480e-01,-4.767997562885284424e-02
3.333621501922607422e+00,1.299055695533752441e+00,9.586657881736755371e-01
3.025661468505859375e+00,1.174185752868652344e+00,-8.696320056915283203e-01
2.535534143447875977e+00,9.834701418876647949e-01,4.747054353356361389e-02
3.223322391510009766e+00,1.249596953392028809e+00,-7.981263995170593262e-01
2.532788038253784180e+00,9.813866615295410156e-01,1.423538029193878174e-01
2.567657709121704102e+00,9.943836927413940430e-01,2.408984750509262085e-01
2.527483463287353516e+00,9.783167243003845215e-01,-4.292562305927276611e-01
2.532680273056030273e+00,9.798200726509094238e-01,3.334345519542694092e-01
2.516187429428100586e+00,9.729360342025756836e-01,-3.312409222126007080e-01
2.557476282119750977e+00,9.883867502212524414e-01,4.342620968818664551e-01
2.549767255783081055e+00,9.854075312614440918e-01,-2.391553521156311035e-01
3.388050079345703125e+00,1.308698534965515137e+00,7.059933543205261230e-01
2.526531934738159180e+00,9.754155874252319336e-01,-1.419351249933242798e-01
2.533686637878417969e+00,9.771603941917419434e-01,-4.740073531866073608e-02
3.331149578094482422e+00,1.284049987792968750e+00,9.565951824188232422e-01
3.018921613693237305e+00,1.159460425376892090e+00,-8.665261864662170410e-01
2.544552803039550781e+00,9.767626523971557617e-01,4.757525771856307983e-02
3.225845098495483398e+00,1.237640500068664551e+00,-7.976765036582946777e-01
2.545522212982177734e+00,9.761155247688293457e-01,1.428771615028381348e-01
2.561811208724975586e+00,9.818489551544189453e-01,2.400269210338592529e-01
2.529038190841674805e+00,9.687821269035339355e-01,-4.289433360099792480e-01
2.526984453201293945e+00,9.669840335845947266e-01,-3.322158455848693848e-01
2.542460680007934570e+00,9.723961949348449707e-01,4.311334192752838135e-01
2.545747995376586914e+00,9.736534953117370605e-01,-2.384580969810485840e-01
3.348585128784179688e+00,1.280040621757507324e+00,6.968345046043395996e-01
2.537384510040283203e+00,9.694409966468811035e-01,-1.423538029193878174e-01
3.387991428375244141e+00,1.293747186660766602e+00,8.372678756713867188e-01
2.527740716934204102e+00,9.647455811500549316e-01,-4.722621291875839233e-02
3.346441745758056641e+00,1.276544570922851562e+00,9.597010612487792969e-01
3.026562690734863281e+00,1.150287270545959473e+00,-8.675615191459655762e-01
2.531122207641601562e+00,9.614840745925903320e-01,4.726111888885498047e-02
3.237432718276977539e+00,1.229140043258666992e+00,-7.994760870933532715e-01
2.546878099441528320e+00,9.669606685638427734e-01,1.427725106477737427e-01
2.555907964706420898e+00,9.693684577941894531e-01,2.391553521156311035e-01
2.521321296691894531e+00,9.557475447654724121e-01,-4.270661175251007080e-01
2.563591480255126953e+00,9.712577462196350098e-01,3.366031348705291748e-01
2.537770271301269531e+00,9.609698653221130371e-01,-3.331908285617828369e-01
2.536433696746826172e+00,9.604638218879699707e-01,4.295690655708312988e-01
2.539813756942749023e+00,9.612368345260620117e-01,-2.375865429639816284e-01
3.330998182296752930e+00,1.260008096694946289e+00,6.922550797462463379e-01
2.533280134201049805e+00,9.577533602714538574e-01,-1.419351249933242798e-01
3.363318920135498047e+00,1.270894050598144531e+00,8.300694227218627930e-01
2.532796382904052734e+00,9.570652842521667480e-01,-4.726111888885498047e-02
3.300053596496582031e+00,1.246328234672546387e+00,9.452071785926818848e-01
3.023326158523559570e+00,1.136996150016784668e+00,-8.654909133911132812e-01
2.523066759109497070e+00,9.488612413406372070e-01,4.705168679356575012e-02
3.217777490615844727e+00,1.209483265876770020e+00,-7.936273813247680664e-01
2.550238132476806641e+00,9.580637812614440918e-01,1.427725106477737427e-01
2.564872741699218750e+00,9.625402688980102539e-01,2.396782934665679932e-01
2.518929004669189453e+00,9.452985525131225586e-01,-4.261275529861450195e-01
2.535200834274291992e+00,9.509002566337585449e-01,3.324595987796783447e-01
2.533508062362670898e+00,9.497610330581665039e-01,-3.322158455848693848e-01
2.556419372558593750e+00,9.578411579132080078e-01,4.323849081993103027e-01
2.545019626617431641e+00,9.530634284019470215e-01,-2.377608716487884521e-01
3.309417724609375000e+00,1.239316582679748535e+00,6.869124174118041992e-01
2.540183544158935547e+00,9.507468938827514648e-01,-1.421444714069366455e-01
3.367515087127685547e+00,1.259732961654663086e+00,8.300694227218627930e-01
2.537995100021362305e+00,9.489179849624633789e-01,-4.729602113366127014e-02
3.300764799118041992e+00,1.233449459075927734e+00,9.441719055175781250e-01
3.041563510894775391e+00,1.132357001304626465e+00,-8.696320056915283203e-01
2.535734176635742188e+00,9.435356855392456055e-01,4.722621291875839233e-02
3.223806381225585938e+00,1.198922157287597656e+00,-7.940772771835327148e-01
2.546077966690063477e+00,9.463729858398437500e-01,1.423538029193878174e-01
2.566182613372802734e+00,9.533361792564392090e-01,2.395039796829223633e-01
2.520361661911010742e+00,9.358117580413818359e-01,-4.258146584033966064e-01
2.529199123382568359e+00,9.385922551155090332e-01,3.312409222126007080e-01
2.527501821517944336e+00,9.374605417251586914e-01,-3.309971690177917480e-01
2.554191112518310547e+00,9.468511939048767090e-01,4.314463138580322266e-01
2.551902770996093750e+00,9.460029602050781250e-01,-2.381094843149185181e-01
3.313723325729370117e+00,1.227757692337036133e+00,6.869124174118041992e-01
2.526630163192749023e+00,9.356313943862915039e-01,-1.412024199962615967e-01
3.368237257003784180e+00,1.246616721153259277e+00,8.291696310043334961e-01
2.546918153762817383e+00,9.421347379684448242e-01,-4.740073531866073608e-02
3.319546222686767578e+00,1.227278590202331543e+00,9.483130574226379395e-01
3.052749156951904297e+00,1.124403119087219238e+00,-8.717026114463806152e-01
2.537135601043701172e+00,9.339882731437683105e-01,4.719131067395210266e-02
3.216998338699340820e+00,1.183624982833862305e+00,-7.913778424263000488e-01
2.538119316101074219e+00,9.333432316780090332e-01,1.417257934808731079e-01
2.573235034942626953e+00,9.457466006278991699e-01,2.398525923490524292e-01
2.525467157363891602e+00,9.276900887489318848e-01,-4.261275529861450195e-01
2.513986587524414062e+00,9.224771261215209961e-01,-3.288035094738006592e-01
2.553771257400512695e+00,9.365699291229248047e-01,4.308205842971801758e-01
2.557059764862060547e+00,9.377759695053100586e-01,-2.382837980985641479e-01
3.288496017456054688e+00,1.205371737480163574e+00,6.808065176010131836e-01
2.531755924224853516e+00,9.274936318397521973e-01,-1.413070857524871826e-01
3.372567892074584961e+00,1.234852552413940430e+00,8.291696310043334961e-01
2.538924217224121094e+00,9.291146993637084961e-01,-4.719131067395210266e-02
3.323809623718261719e+00,1.215684294700622559e+00,9.483130574226379395e-01
3.040318965911865234e+00,1.107788443565368652e+00,-8.670438528060913086e-01
2.544138431549072266e+00,9.264941811561584473e-01,4.726111888885498047e-02
3.224772453308105469e+00,1.173722028732299805e+00,-7.922776341438293457e-01
2.545115470886230469e+00,9.258438944816589355e-01,1.419351249933242798e-01
2.557796001434326172e+00,9.299513101577758789e-01,2.381094843149185181e-01
2.528690338134765625e+00,9.188682436943054199e-01,-4.261275529861450195e-01
2.543153524398803711e+00,9.236228466033935547e-01,3.322158455848693848e-01
2.526521205902099609e+00,9.170831441879272461e-01,-3.300222158432006836e-01
2.549597263336181641e+00,9.249545335769653320e-01,4.295690655708312988e-01
2.551114797592163086e+00,9.250012636184692383e-01,-2.374122440814971924e-01
3.292683601379394531e+00,1.193884611129760742e+00,6.808065176010131836e-01
2.534977912902832031e+00,9.186510443687438965e-01,-1.413070857524871826e-01
3.318225860595703125e+00,1.201835513114929199e+00,8.147727847099304199e-01
2.532750844955444336e+00,9.168425798416137695e-01,-4.701678454875946045e-02
3.233568906784057617e+00,1.169898629188537598e+00,9.213958382606506348e-01
3.037089347839355469e+00,1.094018101692199707e+00,-8.649733066558837891e-01
2.537950515747070312e+00,9.142186641693115234e-01,4.708659276366233826e-02
3.254518985748291016e+00,1.171700716018676758e+00,-7.985762953758239746e-01
2.550211191177368164e+00,9.176296591758728027e-01,1.420398056507110596e-01
2.561187028884887695e+00,9.205708503723144531e-01,2.381094843149185181e-01
2.520886421203613281e+00,9.055874943733215332e-01,-4.242503345012664795e-01
2.546362400054931641e+00,9.147393107414245605e-01,3.322158455848693848e-01
2.548390150070190430e+00,9.149656295776367188e-01,-3.324595987796783447e-01
2.547232151031494141e+00,9.140494465827941895e-01,4.286305010318756104e-01
2.543075084686279297e+00,9.120553135871887207e-01,-2.363663762807846069e-01
3.252682447433471680e+00,1.165910243988037109e+00,6.716477274894714355e-01
2.542088270187377930e+00,9.107015132904052734e-01,-1.415164470672607422e-01
3.227204561233520508e+00,1.155506849288940430e+00,7.913778424263000488e-01
2.537817955017089844e+00,9.086706042289733887e-01,-4.705168679356575012e-02
3.193979740142822266e+00,1.142981767654418945e+00,9.089725017547607422e-01
3.048168420791625977e+00,1.086004018783569336e+00,-8.670438528060913086e-01
2.531864643096923828e+00,9.015569686889648438e-01,4.691207036375999451e-02
3.244105100631713867e+00,1.154534935951232910e+00,-7.949770689010620117e-01
2.555280685424804688e+00,9.093912243843078613e-01,1.421444714069366455e-01
3.407199144363403320e+00,1.211909770965576172e+00,-7.029404044151306152e-01
2.568139553070068359e+00,9.129590392112731934e-01,2.384580969810485840e-01
2.516587018966674805e+00,8.941363692283630371e-01,-4.229988753795623779e-01
2.544085741043090820e+00,9.034079909324645996e-01,3.314846158027648926e-01
2.533018827438354492e+00,8.989803194999694824e-01,-3.300222158432006836e-01
2.557853937149047852e+00,9.077943563461303711e-01,4.298819601535797119e-01
2.548121452331542969e+00,9.038382172584533691e-01,-2.365406900644302368e-01
3.201220035552978516e+00,1.134870052337646484e+00,6.601991653442382812e-01
2.537721633911132812e+00,8.991535902023315430e-01,-1.410977542400360107e-01
3.216523170471191406e+00,1.139029860496520996e+00,7.877786159515380859e-01
2.537204742431640625e+00,8.984706997871398926e-01,-4.698187857866287231e-02
3.196128606796264648e+00,1.131181836128234863e+00,9.084548950195312500e-01
3.053763389587402344e+00,1.075998663902282715e+00,-8.675615191459655762e-01
2.534840822219848633e+00,8.931553959846496582e-01,4.691207036375999451e-02
3.218506097793579102e+00,1.133414506912231445e+00,-7.877786159515380859e-01
2.543366909027099609e+00,8.951631188392639160e-01,1.413070857524871826e-01
3.235467910766601562e+00,1.138118624687194824e+00,-6.666866540908813477e-01
2.567551612854003906e+00,9.026666879653930664e-01,2.381094843149185181e-01
2.521401405334472656e+00,8.864418268203735352e-01,-4.233117103576660156e-01
2.530211925506591797e+00,8.890444636344909668e-01,3.292909860610961914e-01
2.532240629196166992e+00,8.892593979835510254e-01,-3.295347392559051514e-01
2.544231891632080078e+00,8.929718136787414551e-01,4.270661175251007080e-01
2.553139925003051758e+00,8.955993652343750000e-01,-2.367149889469146729e-01
3.208670377731323242e+00,1.125548601150512695e+00,6.609624028205871582e-01
2.525611400604248047e+00,8.854463100433349609e-01,-1.402603685855865479e-01
3.209247827529907227e+00,1.124491453170776367e+00,7.850792407989501953e-01
2.545987129211425781e+00,8.915933370590209961e-01,-4.708659276366233826e-02
3.201881408691406250e+00,1.120655655860900879e+00,9.089725017547607422e-01
3.059138536453247070e+00,1.066502451896667480e+00,-8.680790662765502930e-01
2.545495748519897461e+00,8.869352936744689941e-01,4.705168679356575012e-02
3.226123571395874023e+00,1.123455405235290527e+00,-7.886784672737121582e-01
2.542703866958618164e+00,8.849660158157348633e-01,1.410977542400360107e-01
3.233661174774169922e+00,1.125447750091552734e+00,-6.655418276786804199e-01
2.578058481216430664e+00,8.967650532722473145e-01,2.388067394495010376e-01
2.535675287246704102e+00,8.815275430679321289e-01,-4.251889288425445557e-01
2.537050247192382812e+00,8.815093040466308594e-01,3.297784626483917236e-01
2.525953054428100586e+00,8.771582245826721191e-01,-3.283160626888275146e-01
2.547333478927612305e+00,8.840858936309814453e-01,4.270661175251007080e-01
2.557978630065917969e+00,8.877804875373840332e-01,-2.368893027305603027e-01
3.212580204010009766e+00,1.114340424537658691e+00,6.609624028205871582e-01
2.536235332489013672e+00,8.792410492897033691e-01,-1.406790614128112793e-01
3.198422431945800781e+00,1.108178973197937012e+00,7.814800143241882324e-01
2.535856485366821289e+00,8.781197071075439453e-01,-4.684225842356681824e-02
3.203948497772216797e+00,1.108839631080627441e+00,9.084548950195312500e-01
3.059189558029174805e+00,1.054559111595153809e+00,-8.670438528060913086e-01
2.544795036315917969e+00,8.767409920692443848e-01,4.698187857866287231e-02
3.233710765838623047e+00,1.113455414772033691e+00,-7.895782589912414551e-01
2.542000293731689453e+00,8.747856616973876953e-01,1.408884078264236450e-01
3.211580514907836914e+00,1.105210185050964355e+00,-6.601991653442382812e-01
2.569868087768554688e+00,8.838742375373840332e-01,2.377608716487884521e-01
2.529396533966064453e+00,8.694596886634826660e-01,-4.236246049404144287e-01
2.532753944396972656e+00,8.696266412734985352e-01,-3.288035094738006592e-01
2.550404071807861328e+00,8.751879334449768066e-01,4.270661175251007080e-01
2.551639556884765625e+00,8.756119012832641602e-01,-2.360177487134933472e-01
3.214593410491943359e+00,1.102481842041015625e+00,6.605807542800903320e-01
2.539288282394409180e+00,8.703843355178833008e-01,-1.406790614128112793e-01
3.196740865707397461e+00,1.095112204551696777e+00,7.801303267478942871e-01
2.531339168548583984e+00,8.666709661483764648e-01,-4.670263826847076416e-02
3.200487375259399414e+00,1.095149278640747070e+00,9.063842892646789551e-01
3.061023712158203125e+00,1.043250083923339844e+00,-8.665261864662170410e-01
2.540268659591674805e+00,8.652729392051696777e-01,4.684225842356681824e-02
3.232042551040649414e+00,1.100279092788696289e+00,-7.882285714149475098e-01
2.552601814270019531e+00,8.684796690940856934e-01,1.413070857524871826e-01
3.228429317474365234e+00,1.098418593406677246e+00,-6.628704667091369629e-01
2.561619758605957031e+00,8.710491061210632324e-01,2.367149889469146729e-01
2.523064136505126953e+00,8.574487566947937012e-01,-4.220602512359619141e-01
2.548781394958496094e+00,8.656911849975585938e-01,3.305096924304962158e-01
2.557184934616088867e+00,8.675499558448791504e-01,4.276918768882751465e-01
2.545246601104736328e+00,8.634997606277465820e-01,-2.351461946964263916e-01
2.569531679153442383e+00,8.712387084960937500e-01,5.273960828781127930e-01
2.542311429977416992e+00,8.615145683288574219e-01,-1.406790614128112793e-01
3.285448551177978516e+00,1.112702727317810059e+00,8.008258342742919922e-01
2.540031194686889648e+00,8.597535490989685059e-01,-4.680735617876052856e-02
3.282979965209960938e+00,1.110589504241943359e+00,9.286427497863769531e-01
3.070139169692993164e+00,1.034408450126647949e+00,-8.680790662765502930e-01
2.533797740936279297e+00,8.532102108001708984e-01,4.666773229837417603e-02
3.224782228469848633e+00,1.085260033607482910e+00,-7.855291366577148438e-01
2.553725004196166992e+00,8.589267134666442871e-01,1.412024199962615967e-01
3.232244253158569336e+00,1.087141752243041992e+00,-6.628704667091369629e-01
2.564644575119018555e+00,8.621025681495666504e-01,2.367149889469146729e-01
2.522296905517578125e+00,8.473775386810302734e-01,-4.214345216751098633e-01
2.538614988327026367e+00,8.523653149604797363e-01,3.288035094738006592e-01
2.548173189163208008e+00,8.550812005996704102e-01,-3.300222158432006836e-01
2.553912162780761719e+00,8.565110564231872559e-01,-2.356691360473632812e-01
2.533466339111328125e+00,8.491609096527099609e-01,5.193821191787719727e-01
2.537727594375610352e+00,8.500978946685791016e-01,-1.402603685855865479e-01
3.305943489074707031e+00,1.106796264648437500e+00,8.048748970031738281e-01
2.544913291931152344e+00,8.515157699584960938e-01,-4.684225842356681824e-02
3.292332887649536133e+00,1.100961685180664062e+00,9.301956892013549805e-01
3.062733411788940430e+00,1.020024895668029785e+00,-8.649733066558837891e-01
2.534863471984863281e+00,8.437282443046569824e-01,4.663283005356788635e-02
3.274778842926025391e+00,1.089373946189880371e+00,-7.967766523361206055e-01
2.551021814346313477e+00,8.481175899505615234e-01,1.408884078264236450e-01
3.316127777099609375e+00,1.102486252784729004e+00,-6.792800426483154297e-01
2.567638397216796875e+00,8.531444072723388672e-01,2.367149889469146729e-01
2.525239706039428711e+00,8.385672569274902344e-01,-4.214345216751098633e-01
2.535922527313232422e+00,8.416234254837036133e-01,3.280723094940185547e-01
2.534185409545898438e+00,8.405559062957763672e-01,-3.278285562992095947e-01
2.557553768157958984e+00,8.478115200996398926e-01,4.267532825469970703e-01
2.556886434555053711e+00,8.475903272628784180e-01,-2.356691360473632812e-01
2.532687902450561523e+00,8.390780687332153320e-01,5.186188817024230957e-01
2.529303550720214844e+00,8.374670147895812988e-01,-1.396323442459106445e-01
3.339388370513916016e+00,1.105044126510620117e+00,8.120733499526977539e-01
2.545971393585205078e+00,8.419998288154602051e-01,-4.680735617876052856e-02
3.294322013854980469e+00,1.088855504989624023e+00,9.296780824661254883e-01
3.086460351943969727e+00,1.015971183776855469e+00,-8.706672787666320801e-01
2.537792921066284180e+00,8.348753452301025391e-01,4.663283005356788635e-02
3.297073841094970703e+00,1.084023594856262207e+00,-8.012757301330566406e-01
2.544479131698608398e+00,8.360908031463623047e-01,1.403650492429733276e-01
3.346067428588867188e+00,1.099484920501708984e+00,-6.846227049827575684e-01
2.570600986480712891e+00,8.441757559776306152e-01,2.367149889469146729e-01
2.531905174255371094e+00,8.309799432754516602e-01,-4.220602512359619141e-01
2.540730953216552734e+00,8.333855271339416504e-01,3.283160626888275146e-01
2.525786399841308594e+00,8.279939293861389160e-01,-3.263661265373229980e-01
2.552989006042480469e+00,8.364193439483642578e-01,4.255017936229705811e-01
2.559829473495483398e+00,8.386604785919189453e-01,-2.356691360473632812e-01
2.552392959594726562e+00,8.357309103012084961e-01,5.220534205436706543e-01
2.536008119583129883e+00,8.298746347427368164e-01,-1.398416906595230103e-01
3.320998907089233398e+00,1.086112499237060547e+00,8.066745400428771973e-01
2.543192625045776367e+00,8.312444686889648438e-01,-4.670263826847076416e-02
3.294430255889892578e+00,1.076148867607116699e+00,9.286427497863769531e-01
3.080802440643310547e+00,1.002203822135925293e+00,-8.680790662765502930e-01
2.544495582580566406e+00,8.272475600242614746e-01,4.670263826847076416e-02
3.345318555831909180e+00,1.086959719657897949e+00,-8.120733499526977539e-01
2.549137592315673828e+00,8.282648324966430664e-01,1.404697149991989136e-01
3.439514160156250000e+00,1.116903901100158691e+00,-7.029404044151306152e-01
2.569741725921630859e+00,8.339681029319763184e-01,2.363663762807846069e-01
2.532911300659179688e+00,8.215267658233642578e-01,-4.217473566532135010e-01
2.545512676239013672e+00,8.251242637634277344e-01,3.285597860813140869e-01
2.536214828491210938e+00,8.216198682785034180e-01,-3.273410797119140625e-01
2.546352386474609375e+00,8.249040246009826660e-01,4.239374399185180664e-01
2.551368236541748047e+00,8.260369300842285156e-01,-2.346232533454895020e-01
2.547823429107666016e+00,8.243981003761291504e-01,5.205269455909729004e-01
2.538889408111572266e+00,8.210178017616271973e-01,-1.398416906595230103e-01
3.335896015167236328e+00,1.078108310699462891e+00,8.093739748001098633e-01
2.538324356079101562e+00,8.203458189964294434e-01,-4.656302183866500854e-02
3.297980546951293945e+00,1.065218925476074219e+00,9.286427497863769531e-01
3.071408271789550781e+00,9.873045086860656738e-01,-8.644556403160095215e-01
2.539609670639038086e+00,8.163578510284423828e-01,4.656302183866500854e-02
3.386011362075805664e+00,1.087781786918640137e+00,-8.210713863372802734e-01
2.552012920379638672e+00,8.193622231483459473e-01,1.404697149991989136e-01
2.561253786087036133e+00,8.213430643081665039e-01,2.353204935789108276e-01
2.531859397888183594e+00,8.119168877601623535e-01,-4.211216270923614502e-01
2.546344757080078125e+00,8.160719275474548340e-01,3.283160626888275146e-01
2.540815830230712891e+00,8.138110041618347168e-01,-3.275848329067230225e-01
2.551097631454467773e+00,8.166133761405944824e-01,4.242503345012664795e-01
2.550440549850463867e+00,8.159124255180358887e-01,-2.342746406793594360e-01
2.546803236007690430e+00,8.147487640380859375e-01,5.197637677192687988e-01
2.543499946594238281e+00,8.132026791572570801e-01,-1.399463564157485962e-01
3.339452743530273438e+00,1.067040681838989258e+00,8.093739748001098633e-01
2.544981956481933594e+00,8.126975297927856445e-01,-4.663283005356788635e-02
3.275913000106811523e+00,1.045478224754333496e+00,9.213958382606506348e-01
3.065459966659545898e+00,9.741876125335693359e-01,-8.618674278259277344e-01
2.532914638519287109e+00,8.044607639312744141e-01,4.638849943876266479e-02
2.551050186157226562e+00,8.092405200004577637e-01,1.402603685855865479e-01
2.571560621261596680e+00,8.152529001235961914e-01,2.360177487134933472e-01
2.519613265991210938e+00,7.983015775680541992e-01,-4.186186790466308594e-01
2.549178123474121094e+00,8.071779608726501465e-01,3.283160626888275146e-01
2.543641328811645508e+00,8.049363493919372559e-01,-3.275848329067230225e-01
2.555815696716308594e+00,8.082996606826782227e-01,4.245631992816925049e-01
2.557072877883911133e+00,8.082049489021301270e-01,-2.346232533454895020e-01
2.538400173187255859e+00,8.023031353950500488e-01,5.174739956855773926e-01
2.540610074996948242e+00,8.025139570236206055e-01,-1.396323442459106445e-01
3.335723161697387695e+00,1.053031444549560547e+00,8.075743317604064941e-01
2.545896530151367188e+00,8.032065629959106445e-01,-4.659792408347129822e-02
3.290597438812255859e+00,1.037521362304687500e+00,9.245017170906066895e-01
2.986063241958618164e+00,9.369206428527832031e-01,-8.385737538337707520e-01
2.537614822387695312e+00,7.962134480476379395e-01,4.642340168356895447e-02
2.551953554153442383e+00,7.997339963912963867e-01,1.401557028293609619e-01
2.570728540420532227e+00,8.046324849128723145e-01,2.356691360473632812e-01
2.526292800903320312e+00,7.902401089668273926e-01,-4.192444086074829102e-01
2.534928798675537109e+00,7.929415106773376465e-01,3.261224031448364258e-01
2.529383182525634766e+00,7.907222509384155273e-01,-3.253911733627319336e-01
2.558621883392333984e+00,7.993725538253784180e-01,4.245631992816925049e-01
2.556074619293212891e+00,7.980871200561523438e-01,-2.342746406793594360e-01
2.558190584182739258e+00,7.982578277587890625e-01,5.209085345268249512e-01
2.532094001770019531e+00,7.896296381950378418e-01,-1.390043199062347412e-01
3.339561223983764648e+00,1.040795922279357910e+00,8.075743317604064941e-01
2.554412364959716797e+00,7.960991859436035156e-01,-4.670263826847076416e-02
3.308954238891601562e+00,1.030625224113464355e+00,9.286427497863769531e-01
2.915505647659301758e+00,9.036145210266113281e-01,-8.178681731224060059e-01
2.544336318969726562e+00,7.880911231040954590e-01,4.649320989847183228e-02
2.545189857482910156e+00,7.878687381744384766e-01,1.396323442459106445e-01
2.579231977462768555e+00,7.974187731742858887e-01,2.361920475959777832e-01
2.536585092544555664e+00,7.837500572204589844e-01,-4.204958975315093994e-01
2.556785583496093750e+00,7.895014286041259766e-01,3.285597860813140869e-01
2.532264471054077148e+00,7.814456224441528320e-01,-3.253911733627319336e-01
2.621798515319824219e+00,8.090753555297851562e-01,4.345749914646148682e-01
2.566460132598876953e+00,7.915090322494506836e-01,-2.349718809127807617e-01
2.757958650588989258e+00,8.500395417213439941e-01,5.609784722328186035e-01
2.542469978332519531e+00,7.831372618675231934e-01,-1.394229978322982788e-01
3.335723400115966797e+00,1.026841402053833008e+00,8.057747483253479004e-01
2.547619104385375977e+00,7.842378616333007812e-01,-4.652811586856842041e-02
3.312531948089599609e+00,1.019067645072937012e+00,9.286427497863769531e-01
2.918641567230224609e+00,8.934339880943298340e-01,-8.178681731224060059e-01
2.541199445724487305e+00,7.778940796852111816e-01,4.638849943876266479e-02
2.745875597000122070e+00,8.384506702423095703e-01,2.511828541755676270e-01
2.541059494018554688e+00,7.759102582931518555e-01,-4.208087623119354248e-01
2.764444351196289062e+00,8.435931801795959473e-01,3.548835515975952148e-01
2.538638830184936523e+00,7.742038965225219727e-01,-3.258786499500274658e-01
2.756875991821289062e+00,8.402319550514221191e-01,4.564758241176605225e-01
2.559678077697753906e+00,7.796423435211181641e-01,-2.341003119945526123e-01
2.790811300277709961e+00,8.500423431396484375e-01,5.670843720436096191e-01
2.550785303115844727e+00,7.764459252357482910e-01,-1.397370100021362305e-01
3.354025363922119141e+00,1.020310401916503906e+00,8.093739748001098633e-01
2.538861751556396484e+00,7.718496322631835938e-01,-4.631868749856948853e-02
3.293888330459594727e+00,1.000758647918701172e+00,9.224311113357543945e-01
2.899399280548095703e+00,8.770377039909362793e-01,-8.116565346717834473e-01
3.453118562698364258e+00,1.043874263763427734e+00,6.296828389167785645e-02
3.404480695724487305e+00,1.028520822525024414e+00,-8.210713863372802734e-01
3.468395233154296875e+00,1.047171235084533691e+00,1.898748725652694702e-01
2.779160022735595703e+00,8.385494351387023926e-01,2.539718151092529297e-01
2.778775930404663086e+00,8.373755216598510742e-01,3.563459813594818115e-01
3.478404521942138672e+00,1.047544240951538086e+00,-4.460418224334716797e-01
2.767358541488647461e+00,8.328799605369567871e-01,4.577272832393646240e-01
3.491374969482421875e+00,1.050783991813659668e+00,-3.189899921417236328e-01
2.771200656890869141e+00,8.335102796554565430e-01,5.625049471855163574e-01
3.467759132385253906e+00,1.042358398437500000e+00,-1.897701919078826904e-01
3.323972702026367188e+00,9.985039234161376953e-01,8.012757301330566406e-01
3.460861682891845703e+00,1.038968086242675781e+00,-6.307299435138702393e-02
3.293660163879394531e+00,9.881467223167419434e-01,9.213958382606506348e-01
2.906145095825195312e+00,8.680164813995361328e-01,-8.126918077468872070e-01
3.449076890945434570e+00,1.029525399208068848e+00,6.282866001129150391e-02
3.314678192138671875e+00,9.887801408767700195e-01,-7.985762953758239746e-01
3.483513593673706055e+00,1.038480520248413086e+00,1.905028969049453735e-01
2.782070159912109375e+00,8.288425207138061523e-01,2.539718151092529297e-01
3.455171823501586914e+00,1.028720259666442871e+00,-5.709858536720275879e-01
2.787390232086181641e+00,8.293682932853698730e-01,3.570772111415863037e-01
3.483942985534667969e+00,1.035960793495178223e+00,-4.462855756282806396e-01
2.770248413085937500e+00,8.232169151306152344e-01,4.577272832393646240e-01
3.487381696701049805e+00,1.036322712898254395e+00,-3.182927668094635010e-01
2.757155418395996094e+00,8.188009858131408691e-01,5.590703487396240234e-01
3.475206136703491211e+00,1.031382799148559570e+00,-1.899795383214950562e-01
3.346119880676269531e+00,9.924384951591491699e-01,8.057747483253479004e-01
3.462550401687622070e+00,1.026311993598937988e+00,-6.303809583187103271e-02
3.300794124603271484e+00,9.777401089668273926e-01,9.224311113357543945e-01
2.911010742187500000e+00,8.584125041961669922e-01,-8.132094740867614746e-01
3.458403825759887695e+00,1.019176244735717773e+00,6.293337792158126831e-02
3.318109750747680664e+00,9.772027730941772461e-01,-7.985762953758239746e-01
3.467778921127319336e+00,1.021281242370605469e+00,1.894561797380447388e-01
2.796415090560913086e+00,8.225000500679016113e-01,2.550176978111267090e-01
3.492855548858642578e+00,1.026679515838623047e+00,-5.766174793243408203e-01
2.778840780258178711e+00,8.162758350372314453e-01,3.556147813796997070e-01
3.475931644439697266e+00,1.021044135093688965e+00,-4.448231458663940430e-01
2.772963523864746094e+00,8.140251636505126953e-01,4.577272832393646240e-01
3.479507207870483398e+00,1.020777106285095215e+00,-3.172468841075897217e-01
2.756228923797607422e+00,8.080663681030273438e-01,5.583071708679199219e-01
3.463451623916625977e+00,1.014754056930541992e+00,-1.891421526670455933e-01
3.330691814422607422e+00,9.758568406105041504e-01,8.012757301330566406e-01
3.452501058578491211e+00,1.010891318321228027e+00,-6.279376149177551270e-02
3.285477399826049805e+00,9.613626599311828613e-01,9.172547459602355957e-01
2.917550325393676758e+00,8.498370647430419922e-01,-8.142447471618652344e-01
3.444484233856201172e+00,1.002672672271728516e+00,6.261923164129257202e-02
3.321332216262817383e+00,9.661933183670043945e-01,-7.985762953758239746e-01
3.451969146728515625e+00,1.004196286201477051e+00,1.884094625711441040e-01
2.795300483703613281e+00,8.121111392974853516e-01,2.546690702438354492e-01
3.448815107345581055e+00,1.001320600509643555e+00,-5.687958002090454102e-01
2.815848827362060547e+00,8.170138597488403320e-01,3.600020706653594971e-01
3.444982051849365234e+00,9.995558261871337891e-01,-4.404358267784118652e-01
2.762366771697998047e+00,8.009749054908752441e-01,4.555372297763824463e-01
3.490528106689453125e+00,1.011450052261352539e+00,-3.179441392421722412e-01
2.760779142379760742e+00,7.994685769081115723e-01,5.586887598037719727e-01
3.459123134613037109e+00,1.001043081283569336e+00,-1.887234747409820557e-01
3.303958177566528320e+00,9.561395645141601562e-01,7.940772771835327148e-01
2.787334918975830078e+00,8.061041831970214844e-01,-5.064688622951507568e-02
3.314629793167114258e+00,9.579724073410034180e-01,9.245017170906066895e-01
2.909213304519653320e+00,8.369519710540771484e-01,-8.111389279365539551e-01
2.830878019332885742e+00,8.138808012008666992e-01,5.141478776931762695e-02
3.002367258071899414e+00,8.626168966293334961e-01,-7.211931347846984863e-01
2.879544496536254883e+00,8.267844319343566895e-01,1.570078879594802856e-01
3.423211812973022461e+00,9.822373390197753906e-01,-6.922550797462463379e-01
2.788402795791625977e+00,8.000887632369995117e-01,2.537975311279296875e-01
3.440723180770874023e+00,9.866121411323547363e-01,-5.669185519218444824e-01
2.809000968933105469e+00,8.049380779266357422e-01,3.587833940982818604e-01
3.456083774566650391e+00,9.897112250328063965e-01,-4.414108097553253174e-01
2.770843505859375000e+00,7.929573059082031250e-01,4.564758241176605225e-01
3.490206241607666016e+00,9.981647729873657227e-01,-3.175955414772033691e-01
2.754114627838134766e+00,7.871298789978027344e-01,5.567806959152221680e-01
3.462596654891967773e+00,9.889614582061767578e-01,-1.887234747409820557e-01
3.329761505126953125e+00,9.510220885276794434e-01,7.994760870933532715e-01
2.782440185546875000e+00,7.941734790802001953e-01,-5.050726234912872314e-02
3.291944503784179688e+00,9.389784336090087891e-01,9.172547459602355957e-01
2.906686067581176758e+00,8.247009515762329102e-01,-8.095860481262207031e-01
2.801136493682861328e+00,7.942271232604980469e-01,5.082140862941741943e-02
2.994259119033813477e+00,8.484200835227966309e-01,-7.184937596321105957e-01
2.865260362625122070e+00,8.113267421722412109e-01,1.560658365488052368e-01
2.988522052764892578e+00,8.456677198410034180e-01,-6.037196516990661621e-01
2.783647775650024414e+00,7.876940369606018066e-01,2.531002759933471680e-01
2.959602594375610352e+00,8.369265198707580566e-01,-4.871369600296020508e-01
2.832945585250854492e+00,8.005745410919189453e-01,3.614645004272460938e-01
3.455867052078247070e+00,9.759591221809387207e-01,-4.409233331680297852e-01
2.783236742019653320e+00,7.854796648025512695e-01,4.580401778221130371e-01
3.472748041152954102e+00,9.794159531593322754e-01,-3.156780898571014404e-01
2.755090951919555664e+00,7.764981985092163086e-01,5.563990473747253418e-01
2.870235204696655273e+00,8.084084391593933105e-01,-1.562751829624176025e-01
3.306964635848999023e+00,9.314142465591430664e-01,7.931774854660034180e-01
2.779557704925537109e+00,7.823452949523925781e-01,-5.040255188941955566e-02
3.297223806381225586e+00,9.274304509162902832e-01,9.177724123001098633e-01
2.922712087631225586e+00,8.176859617233276367e-01,-8.132094740867614746e-01
2.782844543457031250e+00,7.780315876007080078e-01,5.043745413422584534e-02
2.971072673797607422e+00,8.300976753234863281e-01,-7.121950984001159668e-01
2.866151094436645508e+00,8.007833361625671387e-01,1.559611707925796509e-01
2.993347167968750000e+00,8.357578516006469727e-01,-6.041013002395629883e-01
2.773082733154296875e+00,7.737372517585754395e-01,2.518800795078277588e-01
2.936011791229248047e+00,8.186449408531188965e-01,-4.827568233013153076e-01
2.820562601089477539e+00,7.859238982200622559e-01,3.595145940780639648e-01
2.919999599456787109e+00,8.136310577392578125e-01,-3.721890151500701904e-01
2.778349876403808594e+00,7.736392021179199219e-01,4.567886888980865479e-01
2.913743019104003906e+00,8.107918500900268555e-01,-2.646048367023468018e-01
2.750219345092773438e+00,7.647718191146850586e-01,5.548726320266723633e-01
2.840325593948364258e+00,7.892943024635314941e-01,-1.544957607984542847e-01
3.021046400070190430e+00,8.395144939422607422e-01,7.238925695419311523e-01
2.774564027786254883e+00,7.704983949661254883e-01,-5.026293173432350159e-02
3.283687591552734375e+00,9.112650156021118164e-01,9.131135940551757812e-01
2.930993795394897461e+00,8.095328807830810547e-01,-8.147624135017395020e-01
2.775771379470825195e+00,7.661380767822265625e-01,5.026293173432350159e-02
2.964416027069091797e+00,8.176505565643310547e-01,-7.099455595016479492e-01
2.837984800338745117e+00,7.827781438827514648e-01,1.542864143848419189e-01
2.992316722869873047e+00,8.247841596603393555e-01,-6.033380627632141113e-01
2.779475212097167969e+00,7.655944824218750000e-01,2.522287070751190186e-01
2.946328163146972656e+00,8.110017776489257812e-01,-4.840082824230194092e-01
2.815497636795043945e+00,7.744594812393188477e-01,3.585396409034729004e-01
2.888229608535766602e+00,7.944659590721130371e-01,-3.678016960620880127e-01
2.780900239944458008e+00,7.644208073616027832e-01,4.567886888980865479e-01
2.899124383926391602e+00,7.963758111000061035e-01,-2.630360126495361328e-01
2.756526708602905273e+00,7.566862106323242188e-01,5.556358098983764648e-01
2.810184001922607422e+00,7.708881497383117676e-01,-1.527163386344909668e-01
2.944882631301879883e+00,8.078385591506958008e-01,7.049966454505920410e-01
2.779032468795776367e+00,7.618226408958435059e-01,-5.029783770442008972e-02
3.320229291915893555e+00,9.095575213432312012e-01,9.224311113357543945e-01
2.969074726104736328e+00,8.094627261161804199e-01,-8.245974779129028320e-01
2.778296232223510742e+00,7.569309473037719727e-01,5.026293173432350159e-02
2.965230941772460938e+00,8.073028326034545898e-01,-7.094956636428833008e-01
2.813719272613525391e+00,7.655254602432250977e-01,1.528210043907165527e-01
2.985563755035400391e+00,8.122789263725280762e-01,-6.014299988746643066e-01
2.781998157501220703e+00,7.563751339912414551e-01,2.522287070751190186e-01
2.949001550674438477e+00,8.012260794639587402e-01,-4.840082824230194092e-01
2.810387134552001953e+00,7.630387544631958008e-01,3.575646877288818359e-01
2.873742818832397461e+00,7.797017097473144531e-01,-3.656080663204193115e-01
2.785458087921142578e+00,7.552265524864196777e-01,4.571015536785125732e-01
2.890211820602416992e+00,7.836286425590515137e-01,-2.619901597499847412e-01
2.774180173873901367e+00,7.516490817070007324e-01,5.586887598037719727e-01
2.810796737670898438e+00,7.610435485839843750e-01,-1.526116579771041870e-01
2.932635545730590820e+00,7.934829592704772949e-01,7.013974189758300781e-01
2.764301776885986328e+00,7.474191784858703613e-01,-4.998369142413139343e-02
3.278624534606933594e+00,8.858691453933715820e-01,9.100078344345092773e-01
2.960688829421997070e+00,7.960846424102783203e-01,-8.214917182922363281e-01
2.778990507125854492e+00,7.467086911201477051e-01,5.022802576422691345e-02
2.988734006881713867e+00,8.025055527687072754e-01,-7.144445776939392090e-01
2.816374301910400391e+00,7.556996941566467285e-01,1.528210043907165527e-01
2.982692003250122070e+00,8.003267049789428711e-01,-6.002851128578186035e-01
2.776924133300781250e+00,7.445948123931884766e-01,2.515314817428588867e-01
2.953688621520996094e+00,7.914378046989440918e-01,-4.843211770057678223e-01
2.813033580780029297e+00,7.532246708869934082e-01,3.575646877288818359e-01
2.886034965515136719e+00,7.722319364547729492e-01,-3.668267726898193359e-01
2.780443906784057617e+00,7.434570193290710449e-01,4.558500647544860840e-01
2.867908000946044922e+00,7.668437957763671875e-01,-2.597241103649139404e-01
2.786270380020141602e+00,7.444953322410583496e-01,5.605968832969665527e-01
2.813436031341552734e+00,7.512280344963073730e-01,-1.526116579771041870e-01
2.937270641326904297e+00,7.837429046630859375e-01,7.018473148345947266e-01
2.764961957931518555e+00,7.372494339942932129e-01,-4.994878917932510376e-02
3.296630144119262695e+00,8.783989548683166504e-01,9.141488671302795410e-01
2.970918893814086914e+00,7.877246737480163574e-01,-8.235622644424438477e-01
2.779647350311279297e+00,7.364907860755920410e-01,5.019312351942062378e-02
2.991516590118408203e+00,7.920700311660766602e-01,-7.144445776939392090e-01
2.815133571624755859e+00,7.448416352272033691e-01,1.526116579771041870e-01
2.994957447052001953e+00,7.924203276634216309e-01,-6.021932363510131836e-01
2.777580261230468750e+00,7.343869209289550781e-01,2.513571381568908691e-01
2.952613115310668945e+00,7.801154851913452148e-01,-4.836954474449157715e-01
2.807968378067016602e+00,7.413729429244995117e-01,3.565897345542907715e-01
2.886793613433837891e+00,7.616459131240844727e-01,-3.665830194950103760e-01
2.783021688461303711e+00,7.337488532066345215e-01,4.558500647544860840e-01
2.853227615356445312e+00,7.522587180137634277e-01,-2.581553161144256592e-01
2.775563001632690430e+00,7.312628626823425293e-01,5.579255223274230957e-01
2.823766946792602539e+00,7.434359192848205566e-01,-1.530303508043289185e-01
2.924911022186279297e+00,7.695205807685852051e-01,6.982480883598327637e-01
2.767518281936645508e+00,7.275940179824829102e-01,-4.994878917932510376e-02
3.266044616699218750e+00,8.580496311187744141e-01,9.048314094543457031e-01
2.992341279983520508e+00,7.822345495223999023e-01,-8.287386298179626465e-01
2.762853384017944336e+00,7.217299342155456543e-01,4.984407499432563782e-02
2.990492343902587891e+00,7.806376814842224121e-01,-7.135447859764099121e-01
2.815783977508544922e+00,7.345055341720581055e-01,1.525069922208786011e-01
2.993906259536743164e+00,7.809692025184631348e-01,-6.014299988746643066e-01
2.803262472152709961e+00,7.307181954383850098e-01,2.534489035606384277e-01
2.934290885925292969e+00,7.643260955810546875e-01,-4.802538752555847168e-01
2.797091960906982422e+00,7.280657887458801270e-01,3.548835515975952148e-01
2.897119045257568359e+00,7.535638809204101562e-01,-3.675579428672790527e-01
2.783654451370239258e+00,7.235321998596191406e-01,4.555372297763824463e-01
2.859692811965942383e+00,7.432962059974670410e-01,-2.585039138793945312e-01
2.781899452209472656e+00,7.225562930107116699e-01,5.586887598037719727e-01
2.805079698562622070e+00,7.280559539794921875e-01,-1.518789678812026978e-01
2.920034170150756836e+00,7.573482990264892578e-01,6.964485049247741699e-01
2.785527229309082031e+00,7.219419479370117188e-01,-5.022802576422691345e-02
2.967926025390625000e+00,7.686641216278076172e-01,8.214917182922363281e-01
3.021243333816528320e+00,7.785355448722839355e-01,-8.359856009483337402e-01
2.771165847778320312e+00,7.135766148567199707e-01,4.994878917932510376e-02
3.004522800445556641e+00,7.731071114540100098e-01,-7.162442207336425781e-01
2.795118331909179688e+00,7.187056541442871094e-01,1.512509286403656006e-01
3.009923219680786133e+00,7.739381790161132812e-01,-6.041013002395629883e-01
2.819303989410400391e+00,7.243984937667846680e-01,2.546690702438354492e-01
2.954161167144775391e+00,7.584994435310363770e-01,-4.830696582794189453e-01
2.772696256637573242e+00,7.113928198814392090e-01,3.514712154865264893e-01
2.901655197143554688e+00,7.439386844635009766e-01,-3.678016960620880127e-01
2.774681806564331055e+00,7.108687162399291992e-01,4.536600112915039062e-01
2.866130113601684570e+00,7.342976331710815430e-01,-2.588525414466857910e-01
2.784404277801513672e+00,7.128431797027587891e-01,5.586887598037719727e-01
2.799864292144775391e+00,7.162790894508361816e-01,-1.514602750539779663e-01
